-145.219 -54.7082 -4.6841
-146.779 -54.9807 -4.71285
-148.312 -55.2663 -4.69288
-149.841 -55.5185 -4.7212
-151.325 -55.7852 -4.71654
-152.875 -56.0343 -4.77182
-154.376 -56.2754 -4.79007
-155.872 -56.5488 -4.79458
-157.377 -56.7778 -4.83164
-158.9 -57.0234 -4.87706
-160.395 -57.2454 -4.87932
-161.892 -57.4475 -4.88102
-163.438 -57.64 -4.90608
-164.968 -57.817 -4.92814
-166.487 -58.0194 -4.95865
-168.055 -58.1902 -5.00187
-169.591 -58.3532 -5.00573
-171.156 -58.48 -5.04529
-172.712 -58.5915 -5.09909
-174.219 -58.6892 -5.12647
-175.754 -58.7951 -5.06287
-177.316 -58.8622 -5.09902
-178.853 -58.9402 -5.18726
-180.343 -58.974 -5.16467
-181.875 -59.049 -5.15632
-183.421 -59.0931 -5.18663
-184.897 -59.0925 -5.2213
-186.411 -59.1618 -5.24837
-187.873 -59.1394 -5.27338
-189.306 -59.1684 -5.30293
-190.737 -59.1672 -5.2957
-192.149 -59.1351 -5.29617
-193.492 -59.1591 -5.32918
-194.84 -59.0868 -5.3222
-196.111 -59.064 -5.33056
-197.331 -59.0581 -5.32014
-198.49 -58.9688 -5.3351
-199.548 -58.9748 -5.32957
-200.571 -58.9526 -5.31903
-201.526 -58.8742 -5.30503
-202.375 -58.8438 -5.26677
-203.204 -58.8449 -5.24456
-204.087 -58.7682 -5.31387
-204.94 -58.6763 -5.29727
-205.735 -58.6598 -5.27524
-206.551 -58.5937 -5.31113
-207.372 -58.5059 -5.3739
-208.171 -58.4625 -5.34448
-208.978 -58.4126 -5.36256
-209.841 -58.3325 -5.43089
-210.81 -58.2818 -5.41593
-211.779 -58.1972 -5.40605
-212.814 -58.0899 -5.44213
-213.915 -58.0196 -5.46324
-215.05 -57.9224 -5.46232
-216.209 -57.8356 -5.50546
-217.421 -57.7569 -5.52392
-218.664 -57.6519 -5.54398
-219.953 -57.5872 -5.57966
-221.273 -57.4545 -5.59496
-222.622 -57.3319 -5.62107
-223.994 -57.2257 -5.65309
-225.415 -57.1123 -5.68844
-226.84 -56.9973 -5.74015
-228.291 -56.8921 -5.75018
-229.752 -56.7364 -5.77393
-231.266 -56.6415 -5.86358
-232.854 -56.4495 -5.85935
-234.394 -56.299 -5.9353
-236.021 -56.1053 -5.93914
-237.62 -55.8985 -6.01484
-239.251 -55.6931 -6.07234
-240.918 -55.4415 -6.13238
-242.567 -55.2028 -6.14507
-244.243 -54.9106 -6.22129
-245.916 -54.669 -6.2196
-247.576 -54.3424 -6.28108
-249.214 -54.0645 -6.32661
-250.848 -53.7519 -6.35558
-252.482 -53.459 -6.41131
-254.086 -53.1597 -6.43955
-255.696 -52.8299 -6.46441
-257.303 -52.5432 -6.52374
-258.924 -52.1889 -6.57406
-260.561 -51.8549 -6.64322
-262.176 -51.5194 -6.69509
-263.749 -51.1472 -6.74494
-265.385 -50.8358 -6.79327
-267.028 -50.4519 -6.80062
-268.648 -50.1404 -6.8515
-270.291 -49.7439 -6.91672
-271.94 -49.3661 -6.9418
-273.577 -48.9776 -6.99655
-275.202 -48.5869 -7.0507
-276.836 -48.1633 -7.08082
-278.484 -47.735 -7.10992
-280.101 -47.2536 -7.15268
-281.741 -46.7572 -7.18862
-283.346 -46.2357 -7.19318
-284.907 -45.7118 -7.22074
-286.523 -45.1555 -7.23636
-288.119 -44.5693 -7.21174
-289.657 -43.9236 -7.19996
-291.216 -43.2345 -7.20752
-292.744 -42.5558 -7.17422
-294.274 -41.854 -7.19158
-295.821 -41.1614 -7.2022
-297.372 -40.4288 -7.20461
-298.892 -39.6945 -7.17978
-300.43 -38.945 -7.20872
-301.929 -38.1345 -7.17724
-303.452 -37.4218 -7.17757
-304.915 -36.6001 -7.15254
-306.434 -35.7755 -7.10033
-307.908 -34.9606 -7.04836
-309.338 -34.0954 -7.02044
-310.814 -33.2495 -6.97668
-312.253 -32.4037 -6.93922
-313.701 -31.5361 -6.9027
-315.168 -30.6917 -6.8811
-316.592 -29.8324 -6.84902
-318.023 -28.9468 -6.84605
-319.48 -28.088 -6.81273
-320.888 -27.2581 -6.75704
-322.293 -26.4164 -6.73058
-323.755 -25.5813 -6.66333
-325.203 -24.8087 -6.61646
-326.652 -24.0451 -6.58643
-328.095 -23.3615 -6.52934
-329.569 -22.7168 -6.5145
-331.076 -22.1152 -6.45208
-332.569 -21.5686 -6.42479
-334.071 -21.1035 -6.43006
-335.589 -20.676 -6.39836
-337.091 -20.3222 -6.35813
-338.557 -20.0022 -6.37785
-340.059 -19.7841 -6.37759
-341.537 -19.5326 -6.37963
-343.01 -19.381 -6.38379
-344.495 -19.2207 -6.40693
-346.043 -19.1222 -6.4043
-347.507 -19.0395 -6.43667
-348.973 -19.0043 -6.50221
-350.45 -18.8947 -6.43652
-351.874 -18.8088 -6.47305
-353.309 -18.6915 -6.47421
-354.724 -18.529 -6.51823
-356.157 -18.3876 -6.51899
-357.548 -18.1755 -6.53207
-358.962 -17.9193 -6.54501
-360.353 -17.6246 -6.50311
-361.713 -17.2798 -6.47657
-363.052 -16.8818 -6.50814
-364.374 -16.3895 -6.45022
-365.644 -15.8796 -6.4293
-366.872 -15.3122 -6.38875
-368.038 -14.6626 -6.37665
-369.129 -13.9616 -6.31883
-370.201 -13.2318 -6.29346
-371.148 -12.3935 -6.21328
-371.994 -11.4978 -6.13163
-372.8 -10.589 -6.10792
-373.395 -9.59779 -5.99531
-373.901 -8.59591 -5.94071
-374.24 -7.55858 -5.84933
-374.453 -6.54987 -5.74389
-374.597 -5.52641 -5.67033
-374.57 -4.50393 -5.61077
-374.421 -3.48569 -5.48497
-374.228 -2.5308 -5.40984
-373.922 -1.5812 -5.35121
-373.526 -0.676342 -5.25859
-373.003 0.180712 -5.1946
-372.407 1.04868 -5.14973
-371.677 1.93298 -5.09312
-370.906 2.78513 -5.01194
-370.013 3.60701 -4.97042
-369.078 4.46497 -4.90807
-368.12 5.32507 -4.82892
-367.1 6.18707 -4.78784
-366.04 7.0955 -4.71023
-364.959 8.0172 -4.65692
-363.841 8.98727 -4.60053
-362.7 9.98459 -4.54572
-361.585 11.0192 -4.46411
-360.42 12.0659 -4.43577
-359.269 13.1963 -4.37834
-358.083 14.3494 -4.30467
-356.876 15.5666 -4.23754
-355.653 16.8221 -4.17639
-354.425 18.1364 -4.15565
-353.133 19.478 -4.09232
-351.833 20.859 -4.05917
-350.506 22.2767 -4.0347
-349.156 23.6967 -3.99361
-347.808 25.1525 -3.97242
-346.452 26.5989 -3.96477
-345.104 28.0856 -3.945
-343.737 29.5776 -3.92013
-342.318 31.1087 -3.88774
-340.95 32.6433 -3.88112
-339.545 34.1917 -3.85138
-338.142 35.7506 -3.86206
-336.73 37.2996 -3.84852
-335.331 38.8412 -3.84409
-333.926 40.4338 -3.86735
-332.507 41.9959 -3.86957
-331.076 43.5793 -3.87273
-329.645 45.1105 -3.88194
-328.2 46.7087 -3.86573
-326.75 48.2559 -3.89699
-325.298 49.8077 -3.90523
-323.836 51.361 -3.95247
-322.346 52.9545 -3.95924
-320.854 54.5142 -3.98526
-319.404 56.0543 -4.00457
-317.956 57.5744 -4.04454
-316.508 59.1158 -4.10316
-315.098 60.6266 -4.07161
-313.669 62.1552 -4.14334
-312.307 63.6548 -4.1382
-310.94 65.1562 -4.17547
-309.585 66.6308 -4.17593
-308.256 68.1047 -4.20628
-306.951 69.5623 -4.23439
-305.657 71.0085 -4.2561
-304.343 72.4355 -4.27615
-303.078 73.8318 -4.28752
-301.836 75.2 -4.30515
-300.608 76.6224 -4.32837
-299.406 77.9903 -4.3564
-298.231 79.403 -4.40042
-297.094 80.7638 -4.37501
-295.951 82.1794 -4.43802
-294.806 83.5782 -4.43397
-293.655 84.9702 -4.44968
-292.538 86.373 -4.47557
-291.377 87.813 -4.49273
-290.262 89.2309 -4.52728
-289.095 90.6848 -4.54736
-287.989 92.1264 -4.57104
-286.876 93.5885 -4.59406
-285.752 95.064 -4.60616
-284.672 96.5614 -4.62254
-283.597 98.0678 -4.63306
-282.538 99.6016 -4.64517
-281.485 101.124 -4.64519
-280.397 102.651 -4.66696
-279.297 104.19 -4.65358
-278.231 105.718 -4.66329
-277.138 107.283 -4.66545
-276.084 108.79 -4.67332
-275.026 110.343 -4.69103
-273.925 111.886 -4.68153
-272.854 113.459 -4.71625
-271.755 115.012 -4.72638
-270.655 116.568 -4.71976
-269.544 118.101 -4.72616
-268.413 119.65 -4.74745
-267.299 121.194 -4.76539
-266.182 122.754 -4.79185
-265.088 124.31 -4.82357
-263.974 125.889 -4.86471
-262.87 127.467 -4.89467
-261.76 129.057 -4.94757
-260.643 130.653 -4.95164
-259.548 132.253 -5.03364
-258.413 133.844 -5.0474
-257.311 135.446 -5.08451
-256.211 137.042 -5.13065
-255.122 138.647 -5.17602
-254.018 140.227 -5.22184
-252.926 141.794 -5.26173
-251.862 143.335 -5.30041
-250.796 144.864 -5.36518
-249.699 146.387 -5.39176
-248.634 147.9 -5.46067
-247.572 149.404 -5.51714
-246.504 150.889 -5.57779
-245.447 152.361 -5.62973
-244.417 153.821 -5.69487
-243.366 155.308 -5.76505
-242.346 156.746 -5.80559
-241.365 158.169 -5.87121
-240.377 159.54 -5.91435
-239.431 160.899 -5.96622
-238.484 162.235 -6.01063
-237.563 163.56 -6.06332
-236.669 164.827 -6.11973
-235.794 166.079 -6.18589
-234.92 167.278 -6.2468
-234.048 168.48 -6.30182
-233.162 169.674 -6.35858
-232.264 170.859 -6.40309
-231.322 172.119 -6.42635
-230.385 173.425 -6.50044
-229.486 174.694 -6.54179
-228.562 176.022 -6.58857
-227.638 177.383 -6.64247
-226.711 178.775 -6.69896
-225.754 180.204 -6.75504
-224.812 181.641 -6.82815
-223.826 183.106 -6.89042
-222.797 184.603 -6.93804
-221.773 186.09 -6.97315
-220.721 187.603 -7.04522
-219.634 189.112 -7.08604
-218.497 190.66 -7.15069
-217.355 192.195 -7.21461
-216.187 193.74 -7.27054
-214.999 195.288 -7.31812
-213.777 196.864 -7.37517
-212.562 198.421 -7.42864
-211.354 199.956 -7.46949
-210.139 201.504 -7.52672
-208.917 203.05 -7.5832
-207.739 204.573 -7.66237
-206.543 206.075 -7.70363
-205.357 207.602 -7.75265
-204.173 209.089 -7.79896
-202.978 210.61 -7.86637
-201.815 212.115 -7.91029
-200.655 213.651 -7.9638
-199.503 215.175 -8.02544
-198.339 216.737 -8.079
-197.208 218.289 -8.13917
-196.083 219.839 -8.19512
-194.942 221.425 -8.24966
-193.772 223.024 -8.29677
-192.625 224.622 -8.3619
-191.477 226.226 -8.42217
-190.315 227.846 -8.48878
-189.151 229.462 -8.54272
-188.011 231.085 -8.60016
-186.872 232.695 -8.65166
-185.707 234.334 -8.70051
-184.562 235.953 -8.75523
-183.428 237.535 -8.82312
-182.277 239.127 -8.83854
-181.129 240.721 -8.87974
-179.974 242.307 -8.90408
-178.824 243.846 -8.93199
-177.67 245.359 -8.95169
-176.484 246.882 -8.95853
-175.292 248.374 -8.9628
-174.116 249.83 -8.98204
-172.929 251.239 -8.98542
-171.707 252.635 -9.00008
-170.447 254 -9.00702
-169.165 255.349 -9.00161
-167.849 256.69 -9.0083
-166.556 257.995 -8.98991
-165.196 259.295 -8.98228
-163.85 260.564 -8.97637
-162.454 261.84 -8.96933
-161.058 263.07 -8.9579
-159.679 264.291 -8.93494
-158.261 265.468 -8.91154
-156.846 266.615 -8.89255
-155.432 267.746 -8.88521
-153.996 268.863 -8.86591
-152.577 269.939 -8.83485
-151.136 270.995 -8.80483
-149.687 272.023 -8.77136
-148.249 272.997 -8.72816
-146.797 273.95 -8.7054
-145.332 274.862 -8.68808
-143.875 275.722 -8.69137
-142.382 276.564 -8.69832
-140.907 277.315 -8.68984
-139.417 278.025 -8.6465
-137.906 278.696 -8.67001
-136.378 279.242 -8.62953
-134.829 279.762 -8.61831
-133.309 280.188 -8.60168
-131.762 280.537 -8.61695
-130.262 280.835 -8.63793
-128.73 281.026 -8.646
-127.173 281.142 -8.66469
-125.624 281.166 -8.69483
-124.076 281.102 -8.75297
-122.53 280.971 -8.81446
-121.002 280.754 -8.87668
-119.472 280.482 -8.95229
-117.976 280.117 -9.03621
-116.454 279.682 -9.13112
-114.971 279.174 -9.24107
-113.525 278.597 -9.36753
-112.081 277.926 -9.52268
-110.672 277.192 -9.68657
-109.276 276.364 -9.87012
-107.91 275.528 -10.0441
-106.576 274.639 -10.1906
-105.207 273.756 -10.3939
-103.853 272.82 -10.5547
-102.485 271.804 -10.727
-101.155 270.834 -10.9013
-99.8236 269.857 -11.0745
-98.4483 268.904 -11.2507
-97.0582 267.982 -11.4279
-95.6204 267.073 -11.6009
-94.1921 266.219 -11.7539
-92.7223 265.408 -11.9086
-91.2284 264.639 -12.0414
-89.6721 263.942 -12.1514
-88.0768 263.313 -12.2647
-86.4531 262.736 -12.3778
-84.8579 262.252 -12.482
-83.2423 261.86 -12.588
-81.5888 261.516 -12.6925
-79.9281 261.261 -12.7912
-78.2801 261.107 -12.8752
-76.6036 261.04 -12.9341
-74.9467 261.054 -12.9864
-73.2874 261.169 -13.0415
-71.6373 261.386 -13.0878
-69.9963 261.675 -13.1094
-68.3496 262.074 -13.1285
-66.7501 262.556 -13.1376
-65.1712 263.117 -13.1411
-63.603 263.76 -13.1277
-62.0421 264.462 -13.1047
-60.5163 265.223 -13.0778
-59.0059 266.054 -13.0483
-57.5354 266.885 -13.0124
-56.0295 267.741 -12.9634
-54.5321 268.655 -12.915
-53.0616 269.562 -12.8632
-51.5472 270.494 -12.8135
-50.0181 271.433 -12.7561
-48.4619 272.378 -12.6854
-46.8951 273.35 -12.6388
-45.3299 274.321 -12.5839
-43.7326 275.318 -12.5255
-42.1376 276.324 -12.4724
-40.5336 277.344 -12.4215
-38.9048 278.371 -12.3643
-37.269 279.394 -12.2826
-35.6276 280.422 -12.2274
-34.0024 281.439 -12.1938
-32.3479 282.47 -12.1517
-30.7204 283.485 -12.0909
-29.0771 284.499 -12.0449
-27.4128 285.512 -12.001
-25.727 286.53 -11.9486
-24.048 287.537 -11.8923
-22.3717 288.529 -11.8299
-20.6999 289.498 -11.7538
-19.009 290.465 -11.6846
-17.2992 291.423 -11.5996
-15.5793 292.367 -11.5084
-13.8615 293.29 -11.4367
-12.1316 294.181 -11.3517
-10.3835 295.034 -11.2713
-8.62934 295.86 -11.2077
-6.82729 296.641 -11.156
-5.01976 297.367 -11.1009
-3.194 298.032 -11.0257
-1.33903 298.64 -10.9663
0.505478 299.22 -10.8777
2.36554 299.751 -10.8172
4.25386 300.245 -10.7525
6.13736 300.728 -10.7106
8.04492 301.17 -10.6587
9.92493 301.595 -10.6077
11.8374 301.974 -10.5676
13.7361 302.334 -10.5266
15.6259 302.682 -10.4718
17.5323 303.021 -10.4377
19.4343 303.339 -10.3814
21.3335 303.625 -10.3463
23.2174 303.9 -10.3133
25.0994 304.162 -10.2931
26.9897 304.416 -10.2613
28.8798 304.659 -10.2617
30.7489 304.884 -10.2412
32.6179 305.115 -10.2321
34.4856 305.345 -10.2211
36.3624 305.578 -10.2074
38.2764 305.819 -10.1939
40.1562 306.074 -10.1809
42.0332 306.333 -10.1858
43.9113 306.6 -10.1787
45.7827 306.849 -10.1628
47.6593 307.096 -10.1332
49.5614 307.36 -10.0998
51.4509 307.604 -10.0583
53.3432 307.856 -10.0345
55.2395 308.104 -10.0051
57.1369 308.361 -9.97565
59.0185 308.619 -9.95138
60.9186 308.874 -9.91085
62.8191 309.126 -9.8803
64.7001 309.387 -9.82415
66.6025 309.626 -9.77329
68.4858 309.882 -9.72743
70.3757 310.138 -9.6648
72.2595 310.39 -9.62099
74.1418 310.644 -9.56119
76.0159 310.872 -9.49682
77.9201 311.117 -9.44062
79.7678 311.365 -9.37471
81.6318 311.588 -9.29551
83.4769 311.824 -9.22824
85.3246 312.057 -9.15822
87.1528 312.298 -9.09377
88.9739 312.536 -9.00531
90.811 312.78 -8.96451
92.6235 313.017 -8.87977
94.4516 313.258 -8.81537
96.2636 313.504 -8.76459
98.0634 313.747 -8.70629
99.8486 313.975 -8.63641
101.64 314.208 -8.57292
103.417 314.443 -8.51139
105.182 314.671 -8.42486
106.956 314.898 -8.34569
108.714 315.107 -8.26692
110.474 315.326 -8.18427
112.226 315.541 -8.12717
113.954 315.745 -8.02931
115.686 315.955 -7.96013
117.406 316.16 -7.88919
119.122 316.358 -7.80869
120.821 316.561 -7.72634
122.509 316.757 -7.65869
124.194 316.972 -7.58064
125.877 317.18 -7.50169
127.55 317.386 -7.42404
129.207 317.59 -7.34886
130.851 317.797 -7.26423
132.484 318.003 -7.17708
134.125 318.21 -7.08562
135.746 318.429 -7.0015
137.357 318.632 -6.90397
138.98 318.834 -6.81207
140.575 319.019 -6.7388
142.156 319.227 -6.66702
143.718 319.411 -6.57957
145.293 319.621 -6.50208
146.86 319.808 -6.44114
148.412 319.994 -6.36091
149.958 320.179 -6.28248
151.48 320.379 -6.22585
152.976 320.554 -6.14351
154.462 320.744 -6.06438
155.931 320.945 -5.99077
157.405 321.134 -5.92324
158.85 321.326 -5.85894
160.235 321.513 -5.78425
161.595 321.704 -5.73669
162.925 321.9 -5.69038
164.176 322.067 -5.64335
165.411 322.248 -5.57814
166.596 322.4 -5.51625
167.774 322.572 -5.47013
168.891 322.719 -5.41644
169.964 322.832 -5.35284
170.961 322.944 -5.28573
171.956 323.062 -5.23116
172.876 323.141 -5.18392
173.737 323.241 -5.15629
174.538 323.315 -5.11175
175.272 323.359 -5.07459
175.954 323.424 -5.04447
176.573 323.467 -5.00539
177.093 323.499 -4.98248
177.545 323.528 -4.94974
177.937 323.546 -4.92227
178.356 323.567 -4.89165
178.763 323.559 -4.86713
179.19 323.513 -4.84713
179.621 323.451 -4.82444
180.075 323.399 -4.80546
180.572 323.309 -4.77804
181.118 323.169 -4.7617
181.744 322.982 -4.72672
182.449 322.708 -4.69363
183.198 322.339 -4.69098
183.99 321.904 -4.65838
184.774 321.338 -4.63665
185.568 320.716 -4.63307
186.342 320.013 -4.62208
187.21 319.276 -4.61206
188.039 318.463 -4.58975
188.877 317.611 -4.60861
189.732 316.695 -4.5959
190.615 315.728 -4.61525
191.52 314.703 -4.60901
192.442 313.65 -4.60933
193.411 312.562 -4.61098
194.39 311.408 -4.5937
195.388 310.208 -4.59911
196.408 309.003 -4.60445
197.441 307.773 -4.61128
198.524 306.487 -4.61173
199.631 305.216 -4.60895
200.767 303.904 -4.61578
201.918 302.569 -4.5985
203.133 301.202 -4.5973
204.355 299.82 -4.57188
205.589 298.432 -4.56464
206.868 297.016 -4.54927
208.189 295.545 -4.54486
209.498 294.06 -4.5093
210.814 292.55 -4.50131
212.123 291.027 -4.45664
213.493 289.462 -4.43392
214.887 287.893 -4.46207
216.268 286.305 -4.4505
217.653 284.751 -4.44938
219.034 283.155 -4.42417
220.442 281.518 -4.39592
221.822 279.892 -4.38248
223.214 278.242 -4.3734
224.577 276.579 -4.37955
225.927 274.933 -4.35982
227.276 273.253 -4.35087
228.652 271.554 -4.33597
230.011 269.836 -4.33734
231.357 268.139 -4.33797
232.689 266.463 -4.31298
234.047 264.746 -4.30043
235.395 263.037 -4.28669
236.749 261.304 -4.25896
238.088 259.578 -4.22425
239.458 257.858 -4.23867
240.849 256.084 -4.25324
242.261 254.388 -4.2702
243.672 252.679 -4.26355
245.076 250.945 -4.22101
246.478 249.228 -4.18958
247.879 247.493 -4.17671
249.298 245.736 -4.14938
250.729 244.002 -4.11919
252.16 242.264 -4.09195
253.593 240.493 -4.0864
255.017 238.689 -4.06595
256.424 236.886 -4.06341
257.86 235.103 -4.07919
259.302 233.298 -4.08674
260.751 231.475 -4.0905
262.198 229.658 -4.11472
263.646 227.838 -4.12445
265.134 226.017 -4.15575
266.612 224.213 -4.20908
268.095 222.431 -4.21747
269.583 220.667 -4.24892
271.096 218.911 -4.31737
272.566 217.182 -4.35215
274.058 215.438 -4.40036
275.528 213.714 -4.4975
277.002 212.002 -4.58145
278.472 210.269 -4.65865
279.913 208.544 -4.74433
281.33 206.803 -4.85068
282.743 205.044 -4.96541
284.123 203.296 -5.07931
285.51 201.525 -5.22677
286.856 199.743 -5.33232
288.165 197.955 -5.46697
289.475 196.099 -5.57038
290.707 194.241 -5.72263
291.878 192.326 -5.88819
293.012 190.371 -6.05896
294.044 188.383 -6.25723
295.001 186.355 -6.47435
295.898 184.257 -6.67417
296.697 182.156 -6.91872
297.454 180.043 -7.15521
298.161 177.903 -7.3919
298.83 175.781 -7.63814
299.494 173.672 -7.88307
300.125 171.575 -8.12001
300.733 169.498 -8.35639
301.324 167.451 -8.61414
301.886 165.42 -8.82929
302.459 163.438 -9.05103
303.014 161.492 -9.24769
303.558 159.609 -9.43995
304.087 157.731 -9.63197
304.607 155.91 -9.80249
305.109 154.148 -9.97339
305.601 152.457 -10.1533
306.066 150.795 -10.315
306.494 149.189 -10.4621
306.902 147.659 -10.5944
307.265 146.207 -10.731
307.594 144.818 -10.87
307.901 143.506 -10.9789
308.163 142.271 -11.0842
308.399 141.114 -11.1927
308.611 140.038 -11.2854
308.785 139.04 -11.3595
308.958 138.111 -11.4521
309.115 137.238 -11.5242
309.261 136.427 -11.5943
309.392 135.663 -11.6681
309.525 134.971 -11.7259
309.617 134.338 -11.7843
309.714 133.774 -11.8378
309.791 133.282 -11.8849
309.869 132.839 -11.9327
309.946 132.429 -11.9725
309.995 132.07 -12.0078
310.05 131.765 -12.0383
310.091 131.52 -12.0522
310.127 131.342 -12.0722
310.146 131.199 -12.0845
310.161 131.098 -12.0947
310.172 131.01 -12.1014
310.181 130.948 -12.1063
310.186 130.907 -12.1093
310.188 130.888 -12.1074
310.188 130.901 -12.1103
310.189 130.903 -12.1115
310.187 130.904 -12.1089
310.189 130.902 -12.1104
310.189 130.904 -12.1127
310.191 130.904 -12.1091
310.187 130.905 -12.1112
310.185 130.905 -12.1159
310.188 130.905 -12.1144
310.187 130.907 -12.1145
310.187 130.906 -12.1129
310.187 130.906 -12.1144
310.186 130.906 -12.1131
310.186 130.907 -12.1122
310.187 130.907 -12.1119
310.186 130.906 -12.1125
310.185 130.906 -12.1124
310.182 130.902 -12.1128
310.18 130.905 -12.1074
310.18 130.906 -12.1048
310.182 130.903 -12.1051
310.182 130.905 -12.1129
310.184 130.903 -12.1116
310.183 130.901 -12.1097
310.185 130.901 -12.1111
310.187 130.905 -12.1121
310.187 130.908 -12.1153
310.187 130.908 -12.1159
310.188 130.908 -12.1127
310.185 130.908 -12.1111
310.188 130.908 -12.1129
310.188 130.91 -12.1117
310.188 130.906 -12.1089
310.187 130.906 -12.1082
310.183 130.905 -12.1111
310.184 130.905 -12.1114
310.185 130.906 -12.1075
310.184 130.906 -12.1071
310.185 130.905 -12.1093
310.182 130.908 -12.1068
310.184 130.907 -12.1033
310.183 130.907 -12.1044
310.185 130.907 -12.1066
310.182 130.906 -12.1101
310.182 130.908 -12.1087
310.183 130.907 -12.1106
310.185 130.907 -12.1101
310.185 130.911 -12.1121
310.186 130.91 -12.1115
310.185 130.91 -12.1114
310.186 130.907 -12.1054
310.183 130.905 -12.1043
310.184 130.902 -12.1017
310.184 130.903 -12.1028
310.185 130.903 -12.1033
310.184 130.902 -12.1017
310.184 130.902 -12.104
310.186 130.902 -12.1042
310.186 130.903 -12.1031
310.185 130.903 -12.1033
310.184 130.903 -12.1027
310.185 130.903 -12.1036
310.185 130.904 -12.1038
310.185 130.902 -12.101
310.184 130.904 -12.1031
310.183 130.903 -12.1035
310.183 130.904 -12.1047
310.183 130.904 -12.1047
310.184 130.904 -12.1042
310.185 130.904 -12.105
310.184 130.904 -12.103
310.184 130.903 -12.1042
310.182 130.903 -12.1094
310.183 130.903 -12.1092
310.184 130.903 -12.1096
310.184 130.903 -12.1087
310.185 130.904 -12.108
310.184 130.903 -12.1082
310.185 130.902 -12.1146
310.181 130.901 -12.115
310.183 130.904 -12.1092
310.185 130.903 -12.108
310.183 130.904 -12.1038
310.183 130.901 -12.102
310.184 130.901 -12.102
310.182 130.897 -12.0997
310.181 130.9 -12.1008
310.181 130.9 -12.1024
310.182 130.901 -12.0985
310.181 130.898 -12.1032
310.184 130.901 -12.1035
310.183 130.899 -12.0973
310.182 130.898 -12.0998
310.183 130.901 -12.1017
310.184 130.902 -12.1032
310.183 130.901 -12.1045
310.183 130.901 -12.1053
310.183 130.901 -12.1053
310.184 130.902 -12.104
310.181 130.905 -12.1043
310.185 130.904 -12.1095
310.185 130.903 -12.1101
310.185 130.903 -12.1095
310.187 130.904 -12.1084
310.181 130.903 -12.1077
310.181 130.903 -12.1095
310.181 130.901 -12.1083
310.18 130.9 -12.1081
310.179 130.901 -12.1089
310.18 130.901 -12.1093
310.178 130.901 -12.1057
310.178 130.901 -12.1062
310.18 130.901 -12.1048
310.181 130.898 -12.1047
310.183 130.899 -12.1062
310.185 130.901 -12.1035
310.183 130.899 -12.1082
310.182 130.903 -12.1003
310.184 130.901 -12.0994
310.187 130.901 -12.1008
310.182 130.901 -12.1009
310.184 130.898 -12.1053
310.182 130.9 -12.106
310.184 130.898 -12.097
310.184 130.9 -12.0983
310.189 130.904 -12.1011
310.188 130.894 -12.1041
310.19 130.881 -12.105
310.194 130.862 -12.106
310.197 130.839 -12.1086
310.203 130.803 -12.1108
310.217 130.741 -12.1175
310.231 130.653 -12.1215
310.246 130.557 -12.1333
310.269 130.434 -12.144
310.297 130.292 -12.1566
310.33 130.12 -12.1772
310.362 129.921 -12.1943
310.403 129.707 -12.204
310.445 129.463 -12.2297
310.496 129.153 -12.2695
310.56 128.801 -12.2985
310.649 128.365 -12.3426
310.718 127.892 -12.3901
310.823 127.331 -12.4279
310.939 126.713 -12.4779
311.046 126.056 -12.5385
311.121 125.362 -12.5847
311.242 124.641 -12.6589
311.369 123.9 -12.7314
311.459 123.093 -12.8046
311.531 122.241 -12.8619
311.631 121.381 -12.9347
311.727 120.489 -13.0198
311.806 119.548 -13.112
311.866 118.566 -13.183
311.937 117.569 -13.2932
311.986 116.538 -13.3896
311.994 115.476 -13.5
311.998 114.362 -13.5966
311.948 113.256 -13.6909
311.868 112.151 -13.7796
311.765 111.038 -13.8815
311.609 109.927 -13.9774
311.436 108.826 -14.0884
311.218 107.751 -14.2021
310.981 106.764 -14.2761
310.761 105.841 -14.4047
310.475 104.995 -14.5144
310.137 104.206 -14.5276
309.818 103.416 -14.6526
309.42 102.661 -14.7469
308.993 101.928 -14.8286
308.533 101.204 -14.9154
308.067 100.511 -15.0185
307.535 99.8595 -15.0848
306.975 99.2108 -15.1585
306.367 98.5675 -15.2554
305.697 97.9509 -15.3094
305.011 97.3503 -15.4037
304.252 96.7757 -15.4789
303.447 96.2296 -15.5569
302.603 95.7165 -15.6418
301.704 95.2094 -15.7292
300.753 94.7709 -15.8051
299.765 94.3724 -15.8882
298.789 94.0251 -15.9602
297.806 93.7124 -16.0437
296.824 93.4634 -16.0992
295.804 93.2531 -16.1661
294.791 93.0396 -16.2357
293.749 92.8595 -16.3018
292.678 92.689 -16.3532
291.609 92.5069 -16.4228
290.52 92.3436 -16.4893
289.412 92.1646 -16.5579
288.277 91.9877 -16.6375
287.076 91.811 -16.7298
285.857 91.633 -16.8079
284.594 91.4337 -16.8885
283.279 91.2363 -16.9808
281.881 91.0374 -17.0774
280.409 90.8129 -17.1921
278.919 90.5759 -17.292
277.36 90.3065 -17.3999
275.774 90.0232 -17.5151
274.126 89.7067 -17.6288
272.43 89.3694 -17.7534
270.695 89.0064 -17.8932
268.965 88.6023 -18.0367
267.194 88.161 -18.1709
265.42 87.682 -18.3329
263.644 87.1734 -18.4876
261.863 86.6214 -18.6178
260.091 86.0489 -18.7706
258.319 85.4616 -18.9308
256.582 84.8612 -19.0926
254.853 84.2332 -19.2471
253.149 83.5777 -19.4036
251.47 82.8862 -19.5642
249.825 82.1849 -19.7179
248.184 81.4655 -19.873
246.585 80.7105 -20.0214
244.996 79.9337 -20.1916
243.452 79.1688 -20.3416
241.947 78.3902 -20.4921
240.463 77.6009 -20.6338
239.029 76.8139 -20.7828
237.626 76.0347 -20.9288
236.253 75.2341 -21.0755
234.919 74.4524 -21.2234
233.584 73.6479 -21.3725
232.263 72.8373 -21.5063
230.975 72.0219 -21.6493
229.712 71.2028 -21.786
228.453 70.3805 -21.9238
227.212 69.5515 -22.0572
226.001 68.725 -22.1827
224.811 67.9011 -22.3069
223.643 67.0797 -22.4291
222.516 66.2833 -22.5515
221.408 65.47 -22.6651
220.337 64.6772 -22.7684
219.301 63.8934 -22.8671
218.296 63.1332 -22.9622
217.319 62.3753 -23.0484
216.369 61.6409 -23.1436
215.465 60.8966 -23.2545
214.589 60.1915 -23.3251
213.751 59.4713 -23.4334
212.914 58.7771 -23.5094
212.098 58.0945 -23.5812
211.314 57.4035 -23.6677
210.559 56.7272 -23.7477
209.813 56.0624 -23.8159
209.099 55.4029 -23.8895
208.409 54.7607 -23.9602
207.75 54.1233 -24.0233
207.118 53.5127 -24.0925
206.5 52.9125 -24.1505
205.919 52.3223 -24.2095
205.364 51.7487 -24.2707
204.834 51.1978 -24.3268
204.343 50.6789 -24.3858
203.887 50.2004 -24.4357
203.476 49.7488 -24.4809
203.099 49.3277 -24.5271
202.751 48.9491 -24.5665
202.443 48.5876 -24.5959
202.171 48.2666 -24.6342
201.932 47.9801 -24.6578
201.724 47.7478 -24.6756
201.551 47.535 -24.6969
201.416 47.3429 -24.7215
201.286 47.2128 -24.7351
201.159 47.0863 -24.7358
201.085 46.9699 -24.7601
201.012 46.9078 -24.7643
200.959 46.8512 -24.767
200.947 46.814 -24.7722
200.927 46.8001 -24.7729
200.928 46.7942 -24.7733
200.93 46.7985 -24.7733
200.929 46.8006 -24.7702
200.931 46.8019 -24.7712
200.93 46.8057 -24.7753
200.932 46.8058 -24.7741
200.931 46.8054 -24.7745
200.931 46.8063 -24.7738
200.932 46.8051 -24.7736
200.932 46.805 -24.7724
200.931 46.8063 -24.7741
200.932 46.8051 -24.7752
200.932 46.8058 -24.7738
200.932 46.8058 -24.7724
200.931 46.8076 -24.7727
200.933 46.808 -24.7744
200.932 46.8073 -24.7745
200.932 46.8072 -24.7749
200.933 46.8075 -24.7742
200.932 46.8087 -24.7748
200.933 46.8076 -24.7756
200.932 46.8065 -24.7751
200.929 46.8056 -24.7759
200.931 46.8054 -24.7757
200.932 46.8065 -24.7742
200.933 46.8063 -24.7747
200.932 46.8068 -24.7741
200.933 46.8062 -24.7749
200.932 46.8069 -24.7746
200.932 46.8067 -24.7739
200.933 46.8071 -24.7737
200.93 46.8049 -24.7727
200.93 46.8039 -24.774
200.931 46.8048 -24.7735
200.932 46.8041 -24.7741
200.931 46.8054 -24.7747
200.932 46.8058 -24.7753
200.931 46.8061 -24.7762
200.931 46.8044 -24.7734
200.931 46.8056 -24.774
200.929 46.8075 -24.774
200.93 46.806 -24.7742
200.931 46.8071 -24.7747
200.928 46.8052 -24.774
200.927 46.8061 -24.7745
200.929 46.8064 -24.775
200.93 46.8061 -24.775
200.93 46.8057 -24.7768
200.93 46.8094 -24.776
200.931 46.8089 -24.7783
200.929 46.8087 -24.7786
200.929 46.8097 -24.7792
200.929 46.8092 -24.7781
200.929 46.8093 -24.7782
200.928 46.8087 -24.7777
200.928 46.8094 -24.7772
200.931 46.8114 -24.7776
200.932 46.8104 -24.7772
200.932 46.8102 -24.7782
200.932 46.81 -24.7769
200.936 46.8144 -24.7754
200.934 46.8139 -24.7746
200.933 46.8139 -24.7733
200.932 46.8153 -24.7738
200.932 46.8145 -24.774
200.934 46.8138 -24.7747
200.934 46.8136 -24.7743
200.936 46.8131 -24.7757
200.934 46.8159 -24.775
200.934 46.8152 -24.7746
200.934 46.8154 -24.7759
200.934 46.8141 -24.775
200.934 46.8132 -24.7764
200.934 46.8126 -24.7748
200.933 46.8121 -24.7748
200.932 46.8131 -24.7707
200.934 46.8129 -24.772
200.932 46.8126 -24.7717
200.933 46.8115 -24.7719
200.933 46.8117 -24.7722
200.932 46.8112 -24.7709
200.931 46.813 -24.7722
200.933 46.8137 -24.7735
200.935 46.8169 -24.7732
200.936 46.8214 -24.7763
200.929 46.8102 -24.7763
200.904 46.7782 -24.7875
200.861 46.7227 -24.794
200.795 46.6373 -24.8082
200.702 46.5267 -24.8227
200.586 46.3889 -24.8393
200.45 46.2302 -24.8556
200.299 46.0319 -24.8815
200.112 45.805 -24.9127
199.9 45.5373 -24.9491
199.68 45.2328 -24.9981
199.417 44.8703 -25.0317
199.099 44.5004 -25.0563
198.785 44.0697 -25.1108
198.429 43.5978 -25.1454
198.025 43.0869 -25.1933
197.639 42.5418 -25.2511
197.219 41.9694 -25.3277
196.784 41.371 -25.3846
196.331 40.7459 -25.4447
195.86 40.0576 -25.5195
195.36 39.3601 -25.5802
194.848 38.6164 -25.6622
194.371 37.8483 -25.7564
193.824 37.0342 -25.8174
193.286 36.1925 -25.913
192.74 35.2856 -26.0116
192.157 34.3441 -26.0952
191.547 33.3368 -26.1834
190.928 32.2958 -26.2923
190.293 31.1919 -26.3847
189.653 30.0361 -26.4901
188.996 28.8355 -26.5973
188.346 27.5964 -26.7153
187.694 26.3183 -26.829
187.013 24.9777 -26.967
186.342 23.5997 -27.0804
185.657 22.1849 -27.2387
184.956 20.6994 -27.3741
184.236 19.1584 -27.5132
183.533 17.5641 -27.6645
182.795 15.9382 -27.8115
182.083 14.2395 -27.9677
181.366 12.4938 -28.1582
180.674 10.682 -28.3275
179.973 8.84214 -28.5105
179.264 6.94304 -28.6824
178.575 5.01998 -28.8768
177.856 3.04772 -29.085
177.158 1.10206 -29.2803
176.459 -0.86557 -29.4666
175.739 -2.84438 -29.6828
175.045 -4.80526 -29.8741
174.355 -6.79105 -30.0933
173.693 -8.76277 -30.2888
173.032 -10.7541 -30.5087
172.37 -12.7424 -30.719
171.71 -14.7448 -30.9172
171.059 -16.7458 -31.1276
170.388 -18.7343 -31.3374
169.736 -20.7422 -31.5455
169.063 -22.7714 -31.7606
168.393 -24.7895 -31.982
167.707 -26.8278 -32.1942
166.998 -28.894 -32.3997
166.263 -30.9558 -32.6038
165.533 -33.0958 -32.8232
164.816 -35.2385 -33.0145
164.073 -37.4103 -33.221
163.341 -39.5921 -33.4376
162.565 -41.7998 -33.6341
161.809 -43.9942 -33.8471
161.05 -46.2071 -34.0606
160.294 -48.4263 -34.2692
159.542 -50.6138 -34.4654
158.794 -52.7859 -34.6632
158.053 -54.9749 -34.8557
157.312 -57.1339 -35.0349
156.56 -59.3002 -35.2259
155.833 -61.4666 -35.4059
155.119 -63.6129 -35.6196
154.39 -65.7429 -35.8289
153.682 -67.875 -36.0465
152.97 -69.9794 -36.2501
152.227 -72.081 -36.4274
151.508 -74.1836 -36.6062
150.767 -76.2641 -36.7796
150.052 -78.3508 -36.9512
149.343 -80.4179 -37.1291
148.638 -82.4755 -37.2949
147.913 -84.5217 -37.4673
147.189 -86.5534 -37.629
146.482 -88.5671 -37.8008
145.762 -90.5833 -37.9548
145.051 -92.5777 -38.1173
144.33 -94.5651 -38.2936
143.635 -96.5105 -38.4658
142.924 -98.4751 -38.6279
142.205 -100.438 -38.7781
141.482 -102.361 -38.941
140.743 -104.277 -39.0936
140.012 -106.184 -39.2474
139.28 -108.08 -39.4079
138.539 -109.977 -39.5783
137.784 -111.887 -39.7523
137.024 -113.773 -39.9142
136.251 -115.678 -40.0711
135.479 -117.58 -40.2554
134.685 -119.459 -40.4165
133.872 -121.303 -40.5678
133.023 -123.143 -40.7315
132.157 -124.959 -40.884
131.272 -126.731 -41.0503
130.351 -128.492 -41.2088
129.376 -130.208 -41.3632
128.356 -131.876 -41.5193
127.297 -133.513 -41.6572
126.205 -135.11 -41.8163
125.081 -136.663 -41.9757
123.952 -138.187 -42.1338
122.772 -139.68 -42.3086
121.58 -141.125 -42.4927
120.376 -142.566 -42.6874
119.195 -143.95 -42.8693
118.001 -145.365 -43.0507
116.827 -146.736 -43.2188
115.701 -148.07 -43.3868
114.59 -149.383 -43.5601
113.54 -150.681 -43.729
112.545 -151.955 -43.8921
111.584 -153.299 -44.0513
110.665 -154.643 -44.2116
109.824 -155.995 -44.3567
109.045 -157.339 -44.4979
108.328 -158.666 -44.6617
107.651 -160.001 -44.7799
107.039 -161.336 -44.9292
106.498 -162.664 -45.058
106.031 -163.997 -45.1804
105.621 -165.35 -45.2793
105.282 -166.68 -45.3934
105.021 -168.013 -45.5242
104.789 -169.35 -45.6121
104.617 -170.686 -45.7135
104.494 -172.009 -45.7985
104.435 -173.314 -45.886
104.447 -174.625 -45.972
104.488 -175.945 -46.0534
104.596 -177.234 -46.143
104.744 -178.503 -46.2284
104.946 -179.753 -46.2957
105.181 -180.982 -46.3522
105.463 -182.163 -46.4221
105.755 -183.317 -46.4732
106.085 -184.416 -46.5265
106.447 -185.517 -46.5712
106.817 -186.558 -46.628
107.207 -187.559 -46.6622
107.602 -188.526 -46.7093
108.002 -189.455 -46.7591
108.421 -190.37 -46.796
108.815 -191.242 -46.8281
109.196 -192.097 -46.8662
109.564 -192.909 -46.8938
109.933 -193.675 -46.9308
110.273 -194.435 -46.9716
110.615 -195.154 -46.9959
110.955 -195.859 -47.0264
111.286 -196.552 -47.0531
111.589 -197.228 -47.068
111.886 -197.879 -47.0914
112.189 -198.512 -47.1161
112.494 -199.133 -47.1502
112.778 -199.754 -47.1698
113.055 -200.356 -47.1876
113.321 -200.944 -47.2048
113.581 -201.516 -47.221
113.844 -202.066 -47.2438
114.09 -202.601 -47.2649
114.323 -203.107 -47.279
114.539 -203.575 -47.2957
114.74 -204.016 -47.307
114.93 -204.418 -47.3167
115.094 -204.789 -47.3278
115.25 -205.108 -47.3435
115.382 -205.395 -47.3539
115.507 -205.655 -47.364
115.6 -205.862 -47.3661
115.683 -206.037 -47.3677
115.738 -206.15 -47.376
115.776 -206.229 -47.3779
115.793 -206.266 -47.3823
115.798 -206.279 -47.3785
115.797 -206.277 -47.3786
115.796 -206.273 -47.3791
115.794 -206.271 -47.3767
115.795 -206.272 -47.378
115.795 -206.273 -47.3783
115.793 -206.272 -47.3792
115.795 -206.272 -47.3768
115.794 -206.272 -47.379
115.793 -206.272 -47.3768
115.791 -206.273 -47.3714
115.795 -206.271 -47.3778
115.795 -206.271 -47.3779
115.795 -206.272 -47.3792
115.795 -206.271 -47.3775
115.796 -206.272 -47.379
115.794 -206.271 -47.3788
115.794 -206.272 -47.3786
115.795 -206.271 -47.3812
115.794 -206.272 -47.3806
115.793 -206.27 -47.3807
115.794 -206.272 -47.3799
115.794 -206.274 -47.3816
115.792 -206.272 -47.3821
115.793 -206.272 -47.3816
115.793 -206.271 -47.3821
115.792 -206.271 -47.3814
115.795 -206.273 -47.388
115.793 -206.271 -47.3875
115.791 -206.271 -47.3874
115.793 -206.273 -47.3892
115.798 -206.279 -47.3858
115.802 -206.287 -47.3848
115.806 -206.299 -47.3879
115.813 -206.313 -47.3877
115.821 -206.33 -47.3783
115.832 -206.355 -47.3788
115.859 -206.41 -47.3826
115.893 -206.486 -47.3844
115.94 -206.585 -47.3904
116 -206.719 -47.3914
116.066 -206.866 -47.3981
116.151 -207.049 -47.406
116.261 -207.279 -47.4197
116.376 -207.534 -47.4164
116.521 -207.841 -47.438
116.68 -208.186 -47.4557
116.849 -208.554 -47.463
117.042 -208.997 -47.4763
117.256 -209.453 -47.4998
117.499 -209.984 -47.5138
117.744 -210.546 -47.5257
118.014 -211.12 -47.5495
118.303 -211.755 -47.5814
118.597 -212.398 -47.6061
118.907 -213.094 -47.6336
119.227 -213.801 -47.6537
119.563 -214.54 -47.6871
119.907 -215.293 -47.7156
120.259 -216.079 -47.7477
120.621 -216.89 -47.7729
120.987 -217.738 -47.7941
121.361 -218.579 -47.8389
121.714 -219.405 -47.8614
122.084 -220.225 -47.8894
122.453 -221.038 -47.9248
122.815 -221.867 -47.9552
123.17 -222.671 -47.9822
123.497 -223.4 -48.0073
123.8 -224.071 -48.0371
124.078 -224.696 -48.057
124.351 -225.286 -48.0829
124.588 -225.823 -48.1008
124.816 -226.327 -48.1287
125.017 -226.794 -48.142
125.207 -227.222 -48.1501
125.395 -227.639 -48.1679
125.585 -228.061 -48.1852
125.772 -228.488 -48.198
125.961 -228.909 -48.21
126.153 -229.334 -48.2274
126.342 -229.758 -48.2429
126.534 -230.176 -48.26
126.721 -230.598 -48.2716
126.912 -231.014 -48.2712
127.106 -231.447 -48.2798
127.311 -231.906 -48.3065
127.519 -232.381 -48.3155
127.757 -232.866 -48.3317
127.986 -233.376 -48.3473
128.23 -233.885 -48.3514
128.496 -234.431 -48.3734
128.789 -234.995 -48.3891
129.098 -235.609 -48.3991
129.444 -236.222 -48.4104
129.834 -236.828 -48.4237
130.249 -237.465 -48.4417
130.707 -238.077 -48.447
131.237 -238.633 -48.435
131.786 -239.201 -48.422
132.379 -239.733 -48.4239
133.051 -240.152 -48.4115
133.743 -240.585 -48.3542
134.563 -240.879 -48.3408
135.341 -241.154 -48.3035
136.213 -241.301 -48.2409
137.074 -241.379 -48.1824
137.981 -241.36 -48.1243
138.924 -241.289 -48.0631
139.88 -241.169 -47.9922
140.885 -240.945 -47.9144
141.896 -240.704 -47.8326
142.937 -240.452 -47.7324
143.973 -240.134 -47.6913
145 -239.811 -47.6258
146.066 -239.511 -47.4889
147.095 -239.143 -47.4402
148.121 -238.801 -47.3594
149.157 -238.463 -47.2836
150.172 -238.112 -47.1998
151.137 -237.788 -47.1261
152.07 -237.455 -47.0668
152.969 -237.176 -46.97
153.833 -236.922 -46.9024
154.677 -236.709 -46.8699
155.561 -236.568 -46.7942
156.4 -236.498 -46.7258
157.245 -236.474 -46.695
158.094 -236.56 -46.6173
158.932 -236.734 -46.5619
159.718 -236.977 -46.5201
160.481 -237.314 -46.5014
161.176 -237.752 -46.4465
161.822 -238.242 -46.413
162.399 -238.826 -46.4048
162.896 -239.437 -46.375
163.371 -240.121 -46.407
163.811 -240.864 -46.4012
164.196 -241.613 -46.431
164.59 -242.364 -46.4448
164.956 -243.089 -46.462
165.338 -243.827 -46.4791
165.678 -244.544 -46.4882
166.06 -245.245 -46.509
166.467 -245.923 -46.5101
166.871 -246.585 -46.5142
167.341 -247.205 -46.523
167.857 -247.788 -46.5232
168.451 -248.311 -46.5121
169.075 -248.784 -46.5066
169.733 -249.179 -46.4788
170.467 -249.46 -46.465
171.189 -249.702 -46.4266
171.968 -249.848 -46.376
172.774 -249.907 -46.3214
173.578 -249.884 -46.2873
174.423 -249.815 -46.2148
175.244 -249.681 -46.151
176.085 -249.474 -46.0925
176.923 -249.222 -46.0265
177.731 -248.934 -45.953
178.555 -248.583 -45.8855
179.378 -248.228 -45.8243
180.253 -247.83 -45.7337
181.117 -247.404 -45.6586
181.979 -246.997 -45.5628
182.89 -246.592 -45.4886
183.821 -246.129 -45.4212
184.793 -245.725 -45.3185
185.706 -245.291 -45.2184
186.699 -244.869 -45.1528
187.703 -244.421 -45.0652
188.718 -243.995 -44.964
189.738 -243.536 -44.8624
190.769 -243.094 -44.772
191.806 -242.656 -44.6528
192.862 -242.173 -44.5252
193.908 -241.703 -44.4167
194.977 -241.224 -44.3088
196.092 -240.72 -44.1564
197.181 -240.218 -44.0629
198.236 -239.684 -43.9356
199.33 -239.177 -43.7828
200.371 -238.622 -43.6532
201.423 -238.035 -43.5531
202.526 -237.45 -43.3912
203.537 -236.821 -43.2474
204.574 -236.15 -43.1404
205.601 -235.493 -42.9957
206.597 -234.794 -42.8696
207.577 -234.076 -42.7312
208.537 -233.338 -42.6072
209.522 -232.569 -42.4978
210.473 -231.801 -42.3413
211.415 -231.023 -42.2123
212.375 -230.235 -42.0933
213.345 -229.441 -41.9629
214.283 -228.654 -41.82
215.22 -227.911 -41.684
216.164 -227.123 -41.5766
217.104 -226.369 -41.4475
217.997 -225.655 -41.296
218.893 -224.919 -41.1874
219.815 -224.196 -41.0788
220.739 -223.45 -40.9225
221.638 -222.743 -40.801
222.54 -222.005 -40.6911
223.447 -221.293 -40.5719
224.342 -220.603 -40.4478
225.239 -219.9 -40.3298
226.129 -219.218 -40.2035
227.007 -218.532 -40.0906
227.873 -217.891 -39.9585
228.718 -217.238 -39.8426
229.574 -216.596 -39.7446
230.405 -215.98 -39.6305
231.229 -215.36 -39.5211
231.999 -214.776 -39.4159
232.747 -214.219 -39.32
233.492 -213.659 -39.223
234.257 -213.09 -39.1283
235.002 -212.534 -39.0267
235.754 -211.99 -38.9335
236.501 -211.442 -38.8281
237.208 -210.868 -38.7411
237.969 -210.314 -38.6446
238.735 -209.711 -38.5473
239.467 -209.087 -38.4341
240.271 -208.511 -38.329
241.035 -207.865 -38.2171
241.84 -207.199 -38.1332
242.637 -206.554 -38.022
243.438 -205.871 -37.9137
244.261 -205.188 -37.8099
245.111 -204.46 -37.6903
245.979 -203.768 -37.5846
246.848 -203.062 -37.4512
247.746 -202.296 -37.3553
248.643 -201.554 -37.2538
249.546 -200.828 -37.1232
250.467 -200.054 -37.0084
251.425 -199.308 -36.8696
252.398 -198.534 -36.7448
253.359 -197.781 -36.6149
254.316 -197.021 -36.4773
255.255 -196.276 -36.3369
256.247 -195.481 -36.2128
257.214 -194.732 -36.097
258.175 -193.961 -35.9958
259.144 -193.218 -35.8672
260.124 -192.479 -35.7369
261.123 -191.704 -35.6304
262.144 -190.973 -35.4902
263.178 -190.208 -35.3787
264.188 -189.466 -35.2805
265.217 -188.73 -35.1672
266.231 -188 -35.0511
267.244 -187.274 -34.9379
268.239 -186.561 -34.824
269.248 -185.861 -34.7146
270.246 -185.165 -34.5914
271.237 -184.458 -34.4901
272.218 -183.756 -34.3923
273.195 -183.08 -34.2677
274.166 -182.389 -34.1637
275.144 -181.705 -34.0548
276.09 -181.027 -33.945
277.029 -180.349 -33.8364
277.972 -179.693 -33.7328
278.881 -179.042 -33.6319
279.762 -178.421 -33.5351
280.62 -177.8 -33.4427
281.437 -177.184 -33.3558
282.245 -176.586 -33.2897
282.982 -175.998 -33.1966
283.656 -175.409 -33.1346
284.303 -174.869 -33.0537
284.896 -174.315 -32.9819
285.448 -173.783 -32.9082
285.976 -173.246 -32.8407
286.433 -172.649 -32.7854
286.855 -172.047 -32.7202
287.243 -171.456 -32.6502
287.59 -170.82 -32.5986
287.866 -170.177 -32.5486
288.096 -169.515 -32.4884
288.235 -168.83 -32.4404
288.305 -168.138 -32.4148
288.297 -167.465 -32.3918
288.234 -166.805 -32.3597
288.112 -166.118 -32.3329
287.903 -165.418 -32.312
287.669 -164.705 -32.3138
287.396 -163.977 -32.288
287.079 -163.235 -32.2925
286.699 -162.508 -32.2809
286.29 -161.732 -32.267
285.848 -160.941 -32.2692
285.369 -160.116 -32.2421
284.824 -159.296 -32.2444
284.275 -158.42 -32.2272
283.682 -157.492 -32.2172
283.051 -156.562 -32.2067
282.416 -155.571 -32.1826
281.735 -154.581 -32.1676
281.052 -153.579 -32.17
280.348 -152.515 -32.1482
279.643 -151.462 -32.1266
278.909 -150.381 -32.1144
278.15 -149.25 -32.0916
277.377 -148.134 -32.1082
276.608 -146.988 -32.0734
275.825 -145.849 -32.0429
275.026 -144.694 -32.0388
274.241 -143.516 -32.0108
273.45 -142.382 -32.0091
272.679 -141.239 -31.9853
271.901 -140.1 -31.9759
271.12 -138.954 -31.9593
270.353 -137.804 -31.9491
269.571 -136.654 -31.9157
268.788 -135.476 -31.8965
268.015 -134.319 -31.8874
267.238 -133.156 -31.8695
266.441 -131.988 -31.8535
265.638 -130.81 -31.8393
264.84 -129.632 -31.8164
264.027 -128.443 -31.8194
263.209 -127.264 -31.8122
262.404 -126.084 -31.7937
261.59 -124.894 -31.7773
260.768 -123.68 -31.7777
259.958 -122.481 -31.735
259.125 -121.266 -31.7179
258.316 -120.07 -31.7176
257.535 -118.909 -31.696
256.755 -117.757 -31.6892
255.976 -116.603 -31.6776
255.21 -115.47 -31.6568
254.454 -114.352 -31.6399
253.71 -113.252 -31.6265
252.958 -112.17 -31.6115
252.238 -111.104 -31.5919
251.542 -110.073 -31.5725
250.852 -109.084 -31.5632
250.189 -108.111 -31.5647
249.535 -107.171 -31.5505
248.906 -106.261 -31.5804
248.3 -105.379 -31.569
247.703 -104.519 -31.5672
247.117 -103.678 -31.5755
246.546 -102.851 -31.5788
246.005 -102.071 -31.5852
245.467 -101.331 -31.5956
244.976 -100.619 -31.6005
244.504 -99.9441 -31.5954
244.06 -99.3052 -31.5943
243.644 -98.6937 -31.6047
243.253 -98.1306 -31.6039
242.888 -97.6077 -31.613
242.569 -97.1052 -31.6065
242.245 -96.6626 -31.6361
242.001 -96.3074 -31.6242
241.786 -96.0016 -31.626
241.628 -95.7703 -31.6296
241.531 -95.6151 -31.6315
241.473 -95.538 -31.6299
241.456 -95.507 -31.6274
241.437 -95.4856 -31.624
241.432 -95.4705 -31.6223
241.425 -95.4706 -31.6231
241.431 -95.4765 -31.6231
241.432 -95.475 -31.6227
241.43 -95.4759 -31.6251
241.432 -95.4769 -31.6235
241.432 -95.4779 -31.6244
241.432 -95.4791 -31.6233
241.433 -95.4811 -31.6226
241.432 -95.4804 -31.6223
241.432 -95.4782 -31.6222
241.432 -95.4766 -31.625
241.428 -95.474 -31.6263
241.425 -95.467 -31.6257
241.42 -95.4603 -31.6296
241.404 -95.4359 -31.622
241.367 -95.384 -31.6251
241.315 -95.3087 -31.6251
241.25 -95.2095 -31.6242
241.169 -95.0849 -31.6234
241.069 -94.9331 -31.6347
240.944 -94.7608 -31.6316
240.807 -94.553 -31.6334
240.651 -94.3048 -31.6432
240.483 -94.0473 -31.643
240.3 -93.7732 -31.6484
240.075 -93.4601 -31.6408
239.842 -93.1115 -31.6449
239.59 -92.7428 -31.6463
239.32 -92.3152 -31.6352
239.021 -91.8615 -31.6465
238.712 -91.3903 -31.6483
238.393 -90.8997 -31.6506
238.019 -90.3689 -31.6387
237.635 -89.7891 -31.6355
237.252 -89.1848 -31.6329
236.811 -88.5218 -31.6203
236.349 -87.8263 -31.6132
235.847 -87.0857 -31.6082
235.307 -86.2887 -31.6173
234.768 -85.4513 -31.608
234.231 -84.5961 -31.5728
233.625 -83.7365 -31.5676
233.016 -82.8269 -31.5228
232.391 -81.8212 -31.5124
231.693 -80.8086 -31.4754
230.991 -79.7466 -31.4827
230.269 -78.6617 -31.4727
229.503 -77.5523 -31.449
228.728 -76.3965 -31.4248
227.943 -75.2231 -31.4073
227.157 -74.0617 -31.4203
226.371 -72.9339 -31.3813
225.6 -71.7955 -31.358
224.82 -70.6572 -31.3317
224.046 -69.5422 -31.333
223.27 -68.4207 -31.2891
222.51 -67.3307 -31.2795
221.739 -66.234 -31.2503
220.989 -65.1502 -31.2322
220.221 -64.0798 -31.2186
219.497 -63.0222 -31.2054
218.768 -61.9794 -31.1828
218.078 -60.9746 -31.1561
217.394 -59.9805 -31.1452
216.738 -59.0353 -31.1265
216.121 -58.1327 -31.1072
215.525 -57.2554 -31.0878
214.969 -56.4325 -31.0723
214.438 -55.6355 -31.0548
213.957 -54.9032 -31.0419
213.521 -54.2436 -31.0262
213.117 -53.6338 -31.0075
212.738 -53.0534 -31.0028
212.397 -52.4991 -30.9895
212.068 -51.9665 -30.9734
211.742 -51.4527 -30.9676
211.424 -50.9419 -30.9501
211.123 -50.4132 -30.9358
210.836 -49.9028 -30.916
210.575 -49.3943 -30.8938
210.329 -48.9039 -30.8896
210.082 -48.41 -30.8869
209.833 -47.8769 -30.8506
209.61 -47.2838 -30.8195
209.414 -46.6839 -30.7888
209.239 -46.0271 -30.7505
209.081 -45.2974 -30.7019
208.992 -44.528 -30.6507
208.996 -43.6826 -30.5772
209.115 -42.7932 -30.5418
209.278 -41.8717 -30.4409
209.596 -40.9385 -30.3345
210.031 -40.0258 -30.2478
210.509 -39.0346 -30.1122
211.123 -38.0482 -30.0033
211.8 -37.0715 -29.8533
212.554 -36.1028 -29.7136
213.328 -35.0997 -29.5539
214.127 -34.0671 -29.3912
214.967 -32.9865 -29.2379
215.846 -31.9209 -29.06
216.768 -30.8157 -28.8932
217.705 -29.7256 -28.7084
218.688 -28.6231 -28.5121
219.709 -27.4873 -28.3185
220.772 -26.3303 -28.131
221.879 -25.1812 -27.9446
222.984 -23.9977 -27.7532
224.093 -22.8462 -27.5357
225.233 -21.6423 -27.358
226.393 -20.4418 -27.1993
227.53 -19.279 -27.0251
228.67 -18.1234 -26.8345
229.835 -16.9507 -26.6589
230.993 -15.8007 -26.512
232.144 -14.6621 -26.3051
233.329 -13.4477 -26.1081
234.504 -12.2527 -25.9188
235.694 -11.0457 -25.701
236.899 -9.84503 -25.505
238.053 -8.67106 -25.3082
239.218 -7.47036 -25.0907
240.376 -6.28852 -24.8839
241.52 -5.14409 -24.6891
242.684 -3.99666 -24.4715
243.842 -2.83738 -24.285
245.043 -1.68223 -24.0596
246.247 -0.52062 -23.8646
247.469 0.655154 -23.6844
248.681 1.79806 -23.5232
249.916 2.97699 -23.3387
251.167 4.17215 -23.1601
252.408 5.34452 -22.9698
253.659 6.52199 -22.7921
254.905 7.65658 -22.6057
256.162 8.77353 -22.4243
257.427 9.92877 -22.2582
258.69 11.048 -22.0411
259.943 12.1567 -21.8477
261.257 13.2655 -21.6239
262.575 14.3883 -21.4066
263.91 15.4949 -21.1839
265.25 16.5973 -20.9614
266.602 17.6963 -20.7479
267.963 18.7884 -20.5478
269.353 19.8966 -20.3474
270.745 20.992 -20.1615
272.146 22.0666 -19.9582
273.532 23.1585 -19.7694
274.926 24.2314 -19.5805
276.302 25.2933 -19.3744
277.695 26.3696 -19.1885
279.09 27.4386 -18.967
280.455 28.5162 -18.7725
281.873 29.597 -18.5743
283.285 30.6747 -18.3853
284.72 31.7283 -18.1825
286.14 32.7747 -17.9966
287.601 33.8122 -17.7862
289.069 34.8367 -17.5776
290.533 35.8393 -17.3714
292.036 36.8558 -17.1611
293.536 37.8427 -16.9463
295.035 38.8235 -16.7396
296.541 39.8096 -16.523
298.05 40.7897 -16.3132
299.545 41.7528 -16.097
301.052 42.6973 -15.8838
302.555 43.6491 -15.6622
304.059 44.5835 -15.4065
305.543 45.4965 -15.1837
307.005 46.3949 -14.9433
308.47 47.2734 -14.7089
309.938 48.1486 -14.5286
311.37 48.9992 -14.2936
312.802 49.8273 -14.0828
314.215 50.6565 -13.8726
315.623 51.4763 -13.6437
317 52.2792 -13.4328
318.359 53.0777 -13.2329
319.72 53.8403 -13.0336
321.025 54.5923 -12.8374
322.278 55.3156 -12.6464
323.528 56.0174 -12.4677
324.715 56.7024 -12.2628
325.869 57.3575 -12.0842
326.965 58.0179 -11.9216
328.027 58.6445 -11.7587
329.006 59.2416 -11.6107
329.94 59.8151 -11.4632
330.824 60.3689 -11.3256
331.636 60.9227 -11.2056
332.385 61.437 -11.0761
333.062 61.9281 -10.9619
333.655 62.3888 -10.857
334.199 62.838 -10.7731
334.672 63.2387 -10.6852
335.088 63.586 -10.6052
335.441 63.9039 -10.5414
335.73 64.1697 -10.476
336.008 64.4337 -10.4175
336.257 64.6832 -10.3624
336.483 64.9349 -10.3247
336.694 65.2014 -10.3002
336.897 65.4623 -10.257
337.096 65.711 -10.2118
337.289 65.9886 -10.1721
337.48 66.303 -10.1364
337.674 66.649 -10.0968
337.897 67.0354 -10.0371
338.105 67.4822 -9.98863
338.305 67.9844 -9.9429
338.538 68.5479 -9.87846
338.714 69.1782 -9.82859
338.868 69.7631 -9.74265
338.986 70.3706 -9.69896
339.091 70.9551 -9.62597
339.163 71.5271 -9.57467
339.171 72.0754 -9.55135
339.19 72.5733 -9.50296
339.218 73.0205 -9.46106
339.242 73.4408 -9.41996
339.28 73.8405 -9.36815
339.321 74.2084 -9.32388
339.346 74.5485 -9.28852
339.357 74.8595 -9.26803
339.371 75.1586 -9.23422
339.39 75.4268 -9.20531
339.411 75.6575 -9.18606
339.419 75.8474 -9.16622
339.435 75.9943 -9.15277
339.439 76.0952 -9.14983
339.449 76.1555 -9.14601
339.452 76.1695 -9.14017
339.451 76.1496 -9.14137
339.454 76.148 -9.14215
339.452 76.1467 -9.1408
339.452 76.1495 -9.1432
339.454 76.1479 -9.14159
339.453 76.1491 -9.14261
339.452 76.1496 -9.1434
339.452 76.1502 -9.14251
339.452 76.1491 -9.14223
339.455 76.1496 -9.14095
339.456 76.1504 -9.13922
339.457 76.1519 -9.1394
339.458 76.1514 -9.14005
339.457 76.152 -9.1402
339.46 76.1523 -9.13466
339.459 76.1531 -9.13606
339.457 76.1504 -9.13349
